# .PCD v0.7 - Point Cloud Data file format
VERSION 0.7
FIELDS x y z intensity
SIZE 4 4 4 4
TYPE F F F F
COUNT 1 1 1 1
WIDTH 1411
HEIGHT 1
VIEWPOINT 0 0 0 1 0 0 0
POINTS 1411
DATA ascii
23.284 -9.9139996 -2.286 0.36000001
23.506001 -9.9209995 -2.306 0.14
22.395 -9.3710003 -2.184 0.57999998
24.031 -9.9650002 -2.355 0.14
22.558001 -9.2729998 -2.1949999 0.14
22.43 -9.1379995 -2.1789999 0.57999998
24.583 -9.9680004 -2.405 0.25999999
23.698 -9.5229998 -2.309 0.16
23.687 -9.4329996 -2.3039999 0.18000001
23.875999 -9.4209995 -2.3210001 0.47999999
24.372999 -9.5279999 -2.3699999 0.14
21.645 -8.3870001 -2.0799999 0.19
21.517 -8.2589998 -2.0639999 0.56
25.26 -9.6459999 -2.4560001 0.20999999
24.618999 -9.3129997 -2.385 0.33000001
24.898001 -9.3290005 -2.4119999 0.19
21.73 -8.0679998 -2.0769999 0.22
22.006001 -8.0909996 -2.1029999 0.16
19.533001 -7.1160002 -1.842 0.15000001
24.914 -8.9799995 -2.401 0.17
23.966999 -8.5970001 -2.3010001 0.13
24.125 -8.5679998 -2.3150001 0.34
23.879999 -8.3970003 -2.286 0.20999999
17.954 -6.257 -1.6670001 0.25999999
17.987 -6.2049999 -1.669 0.27000001
22.886 -7.7670002 -2.174 0.57999998
23.070999 -7.7490001 -2.1900001 0.23999999
18.000999 -5.9889998 -1.663 0.18000001
18.033001 -5.9369998 -1.665 0.34999999
23.101 -7.5180001 -2.1860001 0.28999999
23.021 -7.4120002 -2.175 0.34999999
23.040001 -7.3379998 -2.175 0.37
23.08 -7.3109999 -2.178 0.23
23.243999 -7.2820001 -2.1919999 0.34999999
23.306 -7.2220001 -2.1960001 0.22
21.385 -6.5549998 -1.997 0.19
21.436001 -6.4970002 -2 0.17
22.923 -6.8670001 -2.1500001 0.25
22.945 -6.7950001 -2.1500001 0.18000001
23.261 -6.849 -2.1819999 0.14
23.301001 -6.7810001 -2.184 0.38999999
23.363001 -6.7199998 -2.188 0.23
21.955 -6.2420001 -2.0420001 0.17
22.167999 -6.2270002 -2.062 0.18000001
22.201 -6.1609998 -2.063 0.41999999
22.261999 -6.1030002 -2.0669999 0.46000001
19.415001 -5.2930002 -1.776 0.15000001
19.513 -5.2529998 -1.785 0.28
19.658001 -5.2259998 -1.798 0.38999999
22.353001 -5.8639998 -2.0699999 0.20999999
19.434 -5.0370002 -1.772 0.22
19.438 -4.973 -1.771 0.16
19.103001 -4.855 -1.7359999 0.38
19.087 -4.7870002 -1.733 0.23
19.087999 -4.724 -1.7309999 0.31999999
19.066 -4.6550002 -1.728 0.36000001
18.917999 -4.5560002 -1.711 0.34999999
18.929001 -4.4959998 -1.711 0.25999999
18.938999 -4.4359999 -1.71 0.33000001
19.150999 -4.4530001 -1.7309999 0.25999999
19.208 -4.4029999 -1.735 0.23999999
19.041 -4.302 -1.717 0.34
19.346001 -4.3070002 -1.747 0.2
23.111 -5.0630002 -2.1240001 0.22
23.162001 -4.9980001 -2.1270001 0.28999999
23.087999 -4.9070001 -2.118 0.30000001
23.051001 -4.8610001 -2.1140001 0.34999999
22.98 -4.7709999 -2.105 0.28999999
22.997 -4.6989999 -2.105 0.16
21.961 -4.4169998 -2 0.57999998
22.337999 -4.4190001 -2.0369999 0.19
22.323 -4.3429999 -2.0339999 0.20999999
22.177999 -4.243 -2.0179999 0.34999999
22.282 -4.2270002 -2.0280001 0.31
22.306999 -4.1589999 -2.029 0.37
22.379 -4.099 -2.0350001 0.34999999
22.455999 -4.0409999 -2.0409999 0.25999999
22.51 -3.977 -2.0450001 0.31
19.214001 -3.2739999 -1.714 0.57999998
21.483 -3.6229999 -1.9400001 0.23999999
19.264999 -3.1900001 -1.7180001 0.27000001
21.386999 -3.4690001 -1.928 0.27000001
21.358999 -3.3959999 -1.924 0.25
21.082001 -3.2839999 -1.896 0.31
20.854 -3.1819999 -1.872 0.28999999
20.368 -3.043 -1.823 0.31999999
20.247999 -2.993 -1.8099999 0.30000001
20.445 -2.9560001 -1.829 0.15000001
14.28 -2.027 -1.216 0.51999998
14.277 -1.9809999 -1.215 0.69999999
14.293 -1.937 -1.216 0.60000002
20.135 -2.654 -1.795 0.23999999
18.787001 -2.448 -1.661 0.31
18.580999 -2.362 -1.64 0.25999999
18.429001 -2.2839999 -1.624 0.31
18.365999 -2.2179999 -1.617 0.31
18.326 -2.155 -1.612 0.47
18.204 -2.082 -1.6 0.25
18.072001 -2.01 -1.586 0.33000001
17.889 -1.962 -1.567 0.30000001
17.796 -1.895 -1.558 0.38
17.729 -1.832 -1.55 0.41
17.702999 -1.773 -1.5470001 0.28
17.847 -1.73 -1.561 0.36000001
17.85 -1.674 -1.561 0.43000001
17.823999 -1.615 -1.558 0.38999999
17.731001 -1.579 -1.548 0.27000001
17.752001 -1.525 -1.55 0.38999999
17.834 -1.475 -1.557 0.38
18.198 -1.447 -1.5930001 0.33000001
18.323 -1.399 -1.605 0.30000001
18.639 -1.364 -1.635 0.57999998
18.407 -1.289 -1.612 0.23999999
18.319 -1.196 -1.603 0.27000001
18.330999 -1.1390001 -1.604 0.81999999
18.267 -1.0779999 -1.597 0.82999998
18.509001 -1.033 -1.6210001 0.38999999
18.301001 -0.96399999 -1.6 0.16
18.287001 -0.935 -1.598 0.1
18.298 -0.87800002 -1.599 0
18.299999 -0.81999999 -1.599 0
18.295 -0.76200002 -1.598 0
18.320999 -0.70599997 -1.601 0
18.287001 -0.64700001 -1.597 0
18.319 -0.58999997 -1.6 0
18.292 -0.56099999 -1.597 0
18.327999 -0.50400001 -1.601 0
18.325001 -0.447 -1.6 0
18.320999 -0.389 -1.6 0
18.322001 -0.331 -1.6 0
18.305 -0.27399999 -1.598 0
18.288 -0.21600001 -1.596 0
18.292 -0.18700001 -1.597 0.079999998
18.282 -0.13 -1.596 0.079999998
18.281 -0.071999997 -1.595 0.090000004
18.277 -0.015 -1.595 0.090000004
17.281 0.012 -1.603 0.2
17.287001 0.066 -1.604 0.17
17.268999 0.12 -1.602 0.31999999
17.27 0.175 -1.602 0.16
17.26 0.20200001 -1.601 0.36000001
17.264999 0.25600001 -1.602 0.19
17.257 0.31 -1.601 0.36000001
17.254 0.36399999 -1.601 0.18000001
17.24 0.41800001 -1.6 0.37
17.249001 0.47299999 -1.601 0.2
17.243 0.52700001 -1.6 0.23999999
17.225 0.55299997 -1.599 0.20999999
17.226999 0.60699999 -1.599 0.23
17.216999 0.66100001 -1.598 0.19
17.212999 0.71499997 -1.598 0.28999999
17.212 0.76899999 -1.598 0.19
17.212 0.824 -1.598 0.16
17.198999 0.87699997 -1.597 0.17
17.200001 0.90399998 -1.597 0.17
17.197001 0.958 -1.597 0.16
17.198 1.013 -1.598 0.16
17.191999 1.067 -1.598 0.16
17.174999 1.12 -1.596 0.16
17.176001 1.174 -1.597 0.23
17.17 1.228 -1.596 0.11
17.16 1.2539999 -1.596 0.16
17.167999 1.309 -1.597 0.16
17.158001 1.362 -1.596 0.17
17.157 1.4170001 -1.597 0.16
17.149 1.47 -1.596 0.17
17.139999 1.524 -1.596 0.18000001
17.150999 1.579 -1.597 0.16
17.163 1.6619999 -1.6 0.28999999
17.153999 1.715 -1.599 0.79000002
17.069 1.761 -1.591 0.81999999
17.26 1.835 -1.6109999 0.38999999
17.121 1.875 -1.597 0.18000001
17.117001 1.929 -1.598 0.23999999
17.110001 1.955 -1.597 0.18000001
17.101999 2.0090001 -1.597 0.34
17.105 2.0639999 -1.598 0.16
17.093 2.1170001 -1.597 0.38999999
17.104 2.1730001 -1.599 0.20999999
17.091 2.2260001 -1.599 0.34
17.098 2.2539999 -1.6 0.19
17.091999 2.3080001 -1.6 0.23
17.093 2.3629999 -1.601 0.18000001
17.084999 2.4159999 -1.601 0.13
17.076 2.47 -1.601 0.17
17.072001 2.5239999 -1.601 0.30000001
17.073999 2.579 -1.602 0.2
17.079 2.6070001 -1.603 0.17
17.061001 2.6589999 -1.602 0.13
17.049 2.7119999 -1.602 0.17
17.049999 2.767 -1.603 0.12
17.049 2.822 -1.603 0.17
17.044001 2.8770001 -1.604 0.20999999
17.042999 2.931 -1.605 0.2
17.048 2.96 -1.6059999 0.20999999
17.045 3.0139999 -1.6059999 0.18000001
17.039 3.069 -1.607 0.25
17.028999 3.122 -1.607 0.20999999
17.027 3.177 -1.608 0.18000001
17.021 3.2309999 -1.608 0.38999999
17.018999 3.286 -1.609 0.25
17.011 3.313 -1.609 0.25999999
17.007 3.3670001 -1.609 0.28
17.002001 3.4219999 -1.61 0.27000001
17.004999 3.4779999 -1.6109999 0.27000001
16.996 3.5320001 -1.612 0.27000001
16.981001 3.5840001 -1.6109999 0.25
16.971001 3.638 -1.6109999 0.19
16.976999 3.6670001 -1.613 0.41
16.962 3.72 -1.612 0.2
16.962 3.776 -1.613 0.31999999
16.959 3.8310001 -1.614 0.2
16.945 3.8840001 -1.614 0.18000001
16.938999 3.938 -1.615 0.17
16.938 3.994 -1.6160001 0.17
16.936001 4.0219998 -1.617 0.16
16.931 4.0770001 -1.617 0.16
16.91 4.1279998 -1.617 0.16
16.903 4.1830001 -1.617 0.16
16.891001 4.2360001 -1.617 0.1
16.888 4.2919998 -1.618 0.16
16.874001 4.3449998 -1.618 0.090000004
16.877001 4.3740001 -1.619 0.15000001
16.867001 4.428 -1.62 0.1
16.853001 4.4809999 -1.62 0.14
16.903 4.6079998 -1.628 0.28999999
16.856001 4.652 -1.625 0.67000002
16.827999 4.7010002 -1.623 0.81999999
16.757 4.71 -1.617 0.61000001
16.93 4.816 -1.637 0.15000001
16.982 4.888 -1.6440001 0.33000001
16.957001 4.9380002 -1.643 0.30000001
16.857 4.967 -1.6339999 0.41999999
16.735001 4.9879999 -1.622 0.34999999
16.608 5.0079999 -1.61 0.43000001
16.486 4.9990001 -1.598 0.34
16.427 5.0380001 -1.5930001 0.43000001
16.268 5.0450001 -1.5779999 0.36000001
16.254 5.0970001 -1.5779999 0.38999999
16.264999 5.1560001 -1.581 0.34
16.160999 5.1799998 -1.571 0.36000001
16.117001 5.1939998 -1.567 0.40000001
16.077999 5.237 -1.5650001 0.46000001
16.021999 5.2740002 -1.5599999 0.23999999
15.321 5.098 -1.485 0.44999999
15.935 5.3569999 -1.554 0.33000001
15.781 5.3610001 -1.539 0.40000001
15.758 5.408 -1.539 0.47
15.633 5.3930001 -1.526 0.25
15.845 5.5219998 -1.551 0.31
15.762 5.5479999 -1.544 0.33000001
15.612 5.5510001 -1.529 0.49000001
15.551 5.5840001 -1.524 0.23999999
15.404 5.5869999 -1.51 0.51999998
15.366 5.6279998 -1.508 0.36000001
15.07 5.546 -1.476 0.38999999
14.935 5.5500002 -1.4630001 0.20999999
14.119 5.2989998 -1.374 0.67000002
14.112 5.3470001 -1.375 0.73000002
14.134 5.4060001 -1.3789999 0.69
14.949 5.77 -1.472 0.23999999
15.459 6.0219998 -1.531 0.34
14.462 5.6620002 -1.421 0.36000001
15.403 6.0840001 -1.528 0.34
15.454 6.1599998 -1.536 0.43000001
15.531 6.2470002 -1.5470001 0.2
15.447 6.27 -1.54 0.49000001
15.46 6.3319998 -1.543 0.31999999
15.297 6.2940001 -1.526 0.43000001
15.323 6.3610001 -1.531 0.41999999
15.373 6.4380002 -1.539 0.47999999
15.19 6.4169998 -1.521 0.25
15.065 6.421 -1.5089999 0.44
15.251 6.5570002 -1.5319999 0.37
15.238 6.6079998 -1.533 0.25
15.135 6.6199999 -1.524 0.44
15.331 6.7340002 -1.5470001 0.41
15.238 6.75 -1.539 0.38
15.157 6.7719998 -1.5319999 0.44
15.395 6.9359999 -1.562 0.27000001
15.328 6.9629998 -1.557 0.56
15.038 6.8889999 -1.526 0.33000001
14.044 6.4619999 -1.413 0.23999999
14.135 6.5580001 -1.426 0.37
14.109 6.5999999 -1.426 0.30000001
14.443 6.8109999 -1.466 0.30000001
14.668 6.973 -1.495 0.43000001
13.458 6.4520001 -1.357 0.43000001
13.903 6.7179999 -1.411 0.28999999
14.376 6.973 -1.4680001 0.28
14.365 7.0240002 -1.469 0.16
13.796 6.8010001 -1.405 0.56999999
14.33 7.118 -1.47 0.25
14.019 7.02 -1.436 0.25999999
13.851 6.9899998 -1.419 0.41999999
13.401 6.7909999 -1.368 0.31999999
13.176 6.7290001 -1.344 0.38999999
13.642 7.02 -1.401 0.31999999
13.345 6.921 -1.369 0.38999999
13.719 7.1690001 -1.415 0.28
13.182 6.9419999 -1.355 0.17
13.155 6.9809999 -1.354 0.57999998
13.184 7.0229998 -1.359 0.41
12.809 6.8759999 -1.317 0.23
12.858 6.954 -1.326 0.47999999
13.245 7.2160001 -1.374 0.33000001
13.797 7.572 -1.442 0.23999999
13.816 7.6389999 -1.448 0.52999997
12.46 6.9429998 -1.289 0.20999999
12.904 7.2160001 -1.3430001 0.31999999
12.807 7.2150002 -1.334 0.37
12.791 7.2589998 -1.335 0.47
12.379 7.0780001 -1.288 0.34999999
12.281 7.073 -1.279 0.34
12.391 7.1880002 -1.295 0.28999999
12.341 7.211 -1.2920001 0.51999998
12.648 7.4159999 -1.33 0.37
12.144 7.1729999 -1.272 0.38
10.595 6.3070002 -1.087 0.18000001
10.555 6.3280001 -1.084 0.55000001
10.676 6.4460001 -1.101 0.27000001
10.54 6.4099998 -1.087 0.22
12.069 7.3870001 -1.277 0.34
12.027 7.3870001 -1.273 0.56999999
11.79 7.2930002 -1.247 0.33000001
11.783 7.3400002 -1.249 0.23
11.753 7.3730001 -1.248 0.58999997
11.834 7.4749999 -1.261 0.33000001
11.899 7.5689998 -1.272 0.37
11.807 7.5619998 -1.263 0.56999999
11.019 7.0840001 -1.1670001 0.33000001
10.95 7.0890002 -1.161 0.27000001
11.802 7.6900001 -1.27 0.63
10.919 7.1659999 -1.163 0.33000001
11.213 7.4089999 -1.2029999 0.2
11.555 7.6859999 -1.248 0.54000002
11.516 7.6869998 -1.245 0.23
10.153 6.8260002 -1.077 0.33000001
10.203 6.9060001 -1.086 0.46000001
10.194 6.947 -1.087 0.16
11.233 7.704 -1.221 0.55000001
11.178 7.7179999 -1.2180001 0.30000001
11.947 8.302 -1.318 0.41
11.79 8.2209997 -1.3 0.5
13.197 9.2600002 -1.482 0.14
11.995 8.4759998 -1.3329999 0.58999997
12.775 9.085 -1.436 0.28999999
10.244 7.3889999 -1.118 0.54000002
10.248 7.4400001 -1.122 0.34
10.302 7.5040002 -1.13 0.50999999
10.521 7.7140002 -1.161 0.19
10.661 7.8670001 -1.183 0.63999999
10.933 8.1210003 -1.221 0.2
11.436 8.5480003 -1.29 0.41
11.364 8.5509996 -1.284 0.31999999
11.484 8.6960001 -1.303 0.43000001
11.376 8.6440001 -1.291 0.41999999
11.778 9.0059996 -1.347 0.34999999
10.488 8.0760002 -1.181 0.37
11.479 8.8929996 -1.3150001 0.20999999
11.656 9.0889997 -1.3430001 0.38
11.56 9.0719995 -1.334 0.38999999
11.641 9.1949997 -1.348 0.47999999
11.67 9.2480001 -1.354 0.25
11.535 9.1999998 -1.34 0.61000001
11.502 9.2329998 -1.339 0.22
11.569 9.3459997 -1.352 0.60000002
10.587 8.6110001 -1.224 0.38
11.168 9.1389999 -1.306 0.37
10.741 8.8190002 -1.25 0.41
10.868 8.9809999 -1.271 0.28
10.769 8.9569998 -1.262 0.20999999
10.665 8.927 -1.251 0.46000001
10.76 9.0640001 -1.268 0.46000001
10.735 9.1000004 -1.2690001 0.34
10.539 8.9919996 -1.2460001 0.27000001
10.755 9.2049999 -1.277 0.56999999
10.82 9.3190002 -1.29 0.33000001
10.945 9.4870005 -1.312 0.31999999
10.917 9.5220003 -1.312 0.27000001
11.188 9.8199997 -1.354 0.31
10.996 9.7130003 -1.331 0.46000001
10.788 9.5900002 -1.306 0.30000001
10.788 9.6210003 -1.308 0.33000001
10.718 9.6190004 -1.303 0.63
13.699 12.363 -1.726 0.25999999
13.721 12.46 -1.734 0.33000001
13.701 12.521 -1.737 0.47999999
8.5830002 7.9559999 -1.021 0.44999999
9.684 9.0010004 -1.1799999 0.47
9.665 9.04 -1.181 0.31
9.2519999 8.7089996 -1.126 0.41999999
9.184 8.6999998 -1.12 0.34999999
9.1330004 8.7069998 -1.117 0.51999998
13.625 13.053 -1.7690001 0.20999999
9.0349998 8.7229996 -1.1109999 0.46000001
13.373 12.934 -1.742 0.18000001
8.9429998 8.7150002 -1.103 0.63999999
13.421 13.144 -1.76 0.18000001
8.8889999 8.7729998 -1.103 0.27000001
9.2460003 9.1809998 -1.16 0.31999999
8.868 8.8620005 -1.108 0.66000003
8.8129997 8.8629999 -1.104 0.20999999
8.5749998 8.6520004 -1.071 0.28999999
10.928 11.085 -1.425 0.36000001
8.5010004 8.6850004 -1.068 0.28999999
8.5089998 8.7489996 -1.074 0.31999999
10.736 11.098 -1.411 0.54000002
10.759 11.192 -1.42 0.25
10.386 10.839 -1.367 0.56
8.901 9.3529997 -1.147 0.31999999
10.438 11.031 -1.385 0.52999997
10.481 11.146 -1.397 0.27000001
10.328 11.053 -1.3789999 0.43000001
10.434 11.236 -1.4 0.2
10.22 11.076 -1.373 0.61000001
9.1020002 9.8999996 -1.2029999 0.25999999
10.626 11.624 -1.444 0.25
10.196 11.225 -1.383 0.28999999
10.191 11.291 -1.387 0.47999999
10.655 11.878 -1.465 0.17
10.671 11.971 -1.474 0.67000002
10.559 11.921 -1.462 0.22
10.577 11.979 -1.4680001 0.23999999
10.794 12.302 -1.508 0.47999999
10.43 11.963 -1.456 0.44
10.438 12.048 -1.464 0.47
8.507 9.8889999 -1.161 0.23
8.4689999 9.908 -1.16 0.38
8.2589998 9.7550001 -1.1339999 0.63
10.001 11.88 -1.421 0.15000001
8.2279997 9.8439999 -1.1390001 0.47
8.2690001 9.9560003 -1.151 0.56999999
10.202 12.352 -1.472 0.25
9.6440001 11.754 -1.387 0.18000001
9.1590004 11.201 -1.3099999 0.23999999
9.1160002 11.22 -1.309 0.30000001
9.0530005 11.215 -1.304 0.47999999
9.0880003 11.33 -1.316 0.36000001
8.9549999 11.237 -1.3 0.57999998
9.04 11.416 -1.3200001 0.34
9.0190001 11.463 -1.322 0.67000002
9.7399998 12.417 -1.447 0.27000001
8.927 11.457 -1.316 0.54000002
8.8640003 11.45 -1.311 0.33000001
8.7980003 11.439 -1.306 0.34999999
9.4139996 12.317 -1.418 0.66000003
9.7030001 12.777 -1.474 0.18000001
8.4650002 11.225 -1.267 0.46000001
8.3690004 11.135 -1.2539999 0.54000002
9.0500002 12.116 -1.378 0.31
8.3610001 11.27 -1.2640001 0.58999997
8.0459995 10.919 -1.215 0.25
9.118 12.449 -1.41 0.44999999
9.2159996 12.666 -1.4349999 0.44
8.184 11.326 -1.258 0.28999999
9.1549997 12.707 -1.434 0.47999999
8.6400003 12.074 -1.349 0.16
9.1429996 12.86 -1.447 0.56999999
9.2390003 13.08 -1.471 0.31999999
8.2880001 11.818 -1.306 0.15000001
8.1490002 11.697 -1.288 0.52999997
8.0579996 11.646 -1.278 0.25
8.0010004 11.601 -1.271 0.57999998
9.0600004 13.22 -1.472 0.15000001
8.2740002 12.159 -1.335 0.58999997
7.3499999 10.88 -1.17 0.33000001
9.033 13.45 -1.4910001 0.28
8.2279997 12.339 -1.348 0.49000001
8.1669998 12.332 -1.344 0.25
7.1630001 10.859 -1.158 0.51999998
8.3210001 12.692 -1.3839999 0.43000001
7.039 10.818 -1.147 0.20999999
8.1210003 12.559 -1.3609999 0.47999999
7.717 12.019 -1.291 0.47
8.2790003 12.98 -1.4069999 0.23
7.4310002 11.697 -1.2460001 0.60000002
7.3189998 11.601 -1.2309999 0.37
7.2789998 11.619 -1.2309999 0.34
6.802 10.936 -1.1440001 0.34
7.2249999 11.695 -1.235 0.63
7.1760001 11.697 -1.232 0.27000001
6.4819999 10.645 -1.101 0.30000001
7.3200002 12.058 -1.272 0.31
6.5500002 10.871 -1.125 0.36000001
6.5840001 11.004 -1.138 0.73000002
6.421 10.81 -1.112 0.19
6.4050002 10.861 -1.1160001 0.56999999
6.5289998 11.15 -1.148 0.2
7.3330002 12.606 -1.322 0.5
6.3600001 10.981 -1.124 0.16
7.3439999 12.763 -1.337 0.54000002
7.3499999 12.867 -1.346 0.30000001
7.1020002 12.526 -1.303 0.62
7.0970001 12.608 -1.3099999 0.31999999
6.8579998 12.275 -1.267 0.23999999
6.086 10.981 -1.11 0.67000002
6.7680001 12.25 -1.261 0.33000001
6.7470002 12.302 -1.2640001 0.50999999
6.5900002 12.107 -1.239 0.28999999
6.6129999 12.241 -1.252 0.43000001
6.5679998 12.25 -1.251 0.31999999
5.9260001 11.141 -1.117 0.55000001
6.4660001 12.243 -1.245 0.38
5.914 11.246 -1.126 0.30000001
6.4619999 12.376 -1.257 0.44999999
6.4250002 12.4 -1.257 0.55000001
6.3779998 12.406 -1.256 0.46000001
6.3410001 12.429 -1.256 0.5
6.2919998 12.43 -1.2539999 0.70999998
6.2870002 12.517 -1.262 0.31999999
5.7379999 11.473 -1.1390001 0.51999998
6.7360001 13.564 -1.381 0.46000001
5.612 11.4 -1.126 0.33000001
6.6680002 13.642 -1.385 0.28999999
5.5219998 11.397 -1.122 0.31
5.6690001 11.794 -1.166 0.28
5.461 11.455 -1.124 0.69999999
5.698 11.998 -1.186 0.18000001
5.652 11.998 -1.184 0.47999999
5.5799999 11.942 -1.176 0.34999999
5.5599999 11.998 -1.1799999 0.46000001
5.579 12.138 -1.194 0.69999999
6.0050001 13.168 -1.3099999 0.23
5.2969999 11.72 -1.142 0.31999999
5.2519999 11.67 -1.136 0.44
5.2329998 11.727 -1.14 0.44
5.9819999 13.508 -1.342 0.68000001
5.9710002 13.599 -1.35 0.18000001
5.2220001 12.001 -1.166 0.75
5.3200002 12.332 -1.202 0.23
5.046 11.802 -1.1390001 0.54000002
5.322 12.497 -1.2180001 0.34999999
4.961 11.756 -1.132 0.72000003
4.948 11.828 -1.138 0.36000001
5.9990001 14.453 -1.433 0.30000001
4.8979998 11.918 -1.145 0.67000002
5.5630002 13.649 -1.3380001 0.2
5.3150001 13.159 -1.281 0.33000001
5.0809999 12.64 -1.222 0.31999999
4.7600002 11.954 -1.143 0.74000001
4.822 12.221 -1.171 0.38
5.7529998 14.7 -1.447 0.25
6.3509998 16.371 -1.633 0.62
6.1859999 16.098 -1.6 0.19
6.25 16.417999 -1.633 0.43000001
4.6469998 12.284 -1.171 0.34
5.3990002 14.394 -1.404 0.41
5.0580001 13.619 -1.316 0.28999999
4.9749999 13.527 -1.304 0.47999999
4.9419999 13.567 -1.307 0.38999999
4.908 13.607 -1.3099999 0.47
5.2550001 14.708 -1.4299999 0.14
5.2220001 14.688 -1.427 0.61000001
6.2969999 17.872999 -1.778 0.23999999
5.1040001 14.649 -1.419 0.46000001
6.2319999 18.048 -1.793 0.28
4.7579999 13.94 -1.337 0.38999999
4.7750001 14.133 -1.357 0.31
4.6430001 13.888 -1.3279999 0.38
4.7800002 14.371 -1.381 0.43000001
4.8270001 14.665 -1.411 0.18000001
4.539 13.941 -1.33 0.34999999
4.48 13.908 -1.325 0.69
4.4530001 13.973 -1.33 0.18000001
4.3790002 13.894 -1.3200001 0.68000001
4.4439998 14.253 -1.358 0.33000001
4.4260001 14.274 -1.36 0.38999999
4.3829999 14.295 -1.36 0.55000001
5.572 18.351999 -1.802 0.2
4.263 14.221 -1.349 0.31999999
4.0419998 13.644 -1.285 0.70999998
4.2849998 14.626 -1.39 0.23
4.1360002 14.203 -1.344 0.40000001
4.105 14.263 -1.349 0.64999998
4.2150002 14.817 -1.408 0.43000001
5.2350001 18.599001 -1.817 0.20999999
3.947 14.217 -1.34 0.63999999
3.964 14.454 -1.364 0.23999999
5.0960002 18.782 -1.831 0.56
5.0840001 18.854 -1.8380001 0.27000001
5.0229998 18.864 -1.837 0.16
4.362 16.601999 -1.591 0.63999999
4.3340001 16.708 -1.601 0.25
4.763 18.591 -1.803 0.43000001
4.6570001 18.42 -1.783 0.23
4.428 17.754 -1.71 0.20999999
4.2940001 17.451 -1.676 0.49000001
4.3099999 17.632999 -1.694 0.40000001
4.2579999 17.66 -1.696 0.34
4.177 17.569 -1.6849999 0.36000001
4.1090002 17.528 -1.679 0.44
4.0510001 17.528999 -1.678 0.23
4.2690001 18.732 -1.8049999 0.28999999
2.6570001 11.786 -1.061 0.47
2.6819999 12.07 -1.09 0.20999999
1.976 9.0579996 -0.76700002 0.47
1.948 9.0679998 -0.76800001 0.28999999
1.9299999 9.1210003 -0.773 0.23999999
2.527 12.089 -1.089 0.66000003
3.7260001 18.046 -1.723 0.20999999
2.6210001 12.833 -1.1670001 0.31999999
2.5910001 12.894 -1.1720001 0.33000001
3.6659999 18.483 -1.766 0.16
1.851 9.5550003 -0.81599998 0.44999999
1.813 9.5190001 -0.81099999 0.33000001
1.777 9.4940004 -0.80800003 0.52999997
1.742 9.4720001 -0.80500001 0.34
1.7309999 9.4919996 -0.80699998 0.54000002
1.699 9.4879999 -0.80599999 0.50999999
1.666 9.474 -0.80400002 0.73000002
1.641 9.5100002 -0.80699998 0.38
1.615 9.5349998 -0.80900002 0.46000001
1.582 9.5240002 -0.80800003 0.69999999
1.563 9.5959997 -0.815 0.28
1.994 12.317 -1.102 0.63999999
1.584 10.012 -0.85799998 0.25999999
1.704 10.977 -0.95899999 0.36000001
1.4960001 9.8579998 -0.84100002 0.31
1.474 9.9239998 -0.847 0.28999999
1.439 9.9029999 -0.84399998 0.47
1.397 9.8339996 -0.83700001 0.51999998
2.2539999 15.931 -1.479 0.36000001
2.211 15.985 -1.484 0.34
1.444 10.75 -0.93199998 0.25999999
1.413 10.776 -0.93400002 0.31999999
1.375 10.747 -0.93099999 0.30000001
2.039 16.239 -1.508 0.61000001
1.992 16.278999 -1.512 0.23999999
1.349 11.239 -0.98100001 0.31999999
1.854 15.778 -1.4579999 0.31
1.801 15.75 -1.454 0.54000002
1.75 15.744 -1.4529999 0.30000001
1.698 15.728 -1.451 0.51999998
1.173 11.263 -0.98199999 0.38
1.142 11.308 -0.986 0.23999999
1.179 11.854 -1.043 0.5
1.151 11.947 -1.052 0.31999999
1.118 12.002 -1.058 0.50999999
1.723 18.974001 -1.788 0.16
1.0369999 11.943 -1.051 0.62
1.059 12.64 -1.124 0.28
0.96499997 11.987 -1.0549999 0.25999999
1.028 12.996 -1.16 0.38
0.82800001 10.958 -0.94700003 0.22
0.82700002 11.405 -0.99299997 0.60000002
0.75400001 11.392 -0.991 0.30000001
0.71700001 11.375 -0.98900002 0.62
1.022 16.865999 -1.563 0.18000001
0.67500001 11.58 -1.011 0.5
0.71100003 12.838 -1.142 0.15000001
0.59600002 11.455 -0.99699998 0.61000001
0.63300002 12.891 -1.147 0.28999999
0.60000002 13.04 -1.1619999 0.55000001
0.53600001 12.53 -1.109 0.25999999
0.51499999 12.982 -1.156 0.16
0.49599999 13.021 -1.16 0.67000002
0.461 13.179 -1.176 0.20999999
0.41999999 13.195 -1.178 0.64999998
0.33199999 11.685 -1.02 0.25
0.296 11.682 -1.0190001 0.18000001
0.28999999 12.944 -1.151 0.63
0.25 13.006 -1.158 0.41
0.23 13.03 -1.16 0.41
0.24600001 16.488001 -1.521 0.38
0.193 16.365 -1.508 0.15000001
0.11 13.265 -1.184 0.44999999
0.068000004 13.275 -1.1849999 0.47
0.02 11.576 -1.008 0.25
-0.015 13.016 -1.158 0.27000001
-0.035999998 13.036 -1.16 0.63
-0.082000002 14.315 -1.294 0.20999999
-0.12 13.42 -1.201 0.38999999
-0.161 13.29 -1.187 0.25999999
-0.17900001 11.467 -0.99699998 0.63999999
-0.214 11.411 -0.991 0.28
-0.375 17.792 -1.6569999 0.14
-0.27000001 11.525 -1.003 0.44999999
-0.30199999 11.341 -0.98400003 0.28999999
-0.33899999 11.396 -0.99000001 0.58999997
-0.37900001 11.53 -1.0039999 0.25999999
-0.417 11.585 -1.01 0.55000001
-0.72399998 18.903999 -1.774 0.23
-0.70899999 16.400999 -1.513 0.64999998
-0.76499999 16.518 -1.526 0.34
-0.81400001 16.440001 -1.518 0.20999999
-0.57499999 10.741 -0.92299998 0.33000001
-0.60399997 10.654 -0.91399997 0.28999999
-0.63700002 10.654 -0.91399997 0.41999999
-0.62099999 10.093 -0.85500002 0.44
-0.65499997 10.123 -0.85900003 0.23
-0.727 10.75 -0.92400002 0.63999999
-0.72000003 10.142 -0.861 0.23
-0.75099999 10.134 -0.86000001 0.47
-0.78500003 10.161 -0.86400002 0.5
-0.833 10.367 -0.88499999 0.20999999
-0.85000002 10.164 -0.86400002 0.63999999
-0.87599999 10.288 -0.87699997 0.23
-0.90700001 10.269 -0.87599999 0.27000001
-0.98799998 10.809 -0.93300003 0.40000001
-1.02 10.79 -0.93099999 0.63999999
-1.018 10.411 -0.89200002 0.20999999
-1.041 10.312 -0.88200003 0.68000001
-1.131 10.873 -0.94099998 0.15000001
-1.128 10.679 -0.921 0.38
-1.168 10.731 -0.926 0.62
-1.215 10.852 -0.94 0.23999999
-1.238 10.749 -0.92900002 0.67000002
-1.291 10.909 -0.94599998 0.16
-1.327 10.923 -0.94800001 0.62
-1.373 10.867 -0.94300002 0.67000002
-1.425 11.005 -0.958 0.18000001
-1.4450001 10.892 -0.94700003 0.69999999
-1.488 10.948 -0.95300001 0.20999999
-1.515 10.891 -0.94700003 0.41
-1.5470001 10.872 -0.94599998 0.43000001
-1.554 10.801 -0.93900001 0.56999999
-1.503 10.203 -0.87599999 0.28
-1.5140001 10.057 -0.861 0.58999997
-1.549 10.073 -0.86400002 0.23
-1.575 10.035 -0.86000001 0.61000001
-1.6160001 10.093 -0.86699998 0.38
-1.779 10.905 -0.95300001 0.44999999
-1.791 10.867 -0.949 0.41
-1.832 10.904 -0.954 0.20999999
-1.853 10.816 -0.94499999 0.57999998
-1.964 11.263 -0.99299997 0.23
-1.949 10.967 -0.96200001 0.47999999
-1.95 10.773 -0.94199997 0.34
-1.983 10.761 -0.94199997 0.47999999
-2.3499999 12.667 -1.1440001 0.15000001
-1.8559999 9.8030005 -0.84100002 0.63
-2.2219999 11.365 -1.008 0.5
-2.119 10.653 -0.93400002 0.38999999
-2.1600001 10.682 -0.93699998 0.23
-2.4920001 12.149 -1.094 0.46000001
-2.503 12.104 -1.09 0.16
-2.247 10.682 -0.93900001 0.56999999
-2.608 12.226 -1.105 0.28999999
-2.589 11.947 -1.076 0.31
-2.381 10.814 -0.95599997 0.55000001
-2.487 11.133 -0.99000001 0.22
-2.4779999 10.927 -0.96899998 0.31
-2.494 10.917 -0.96899998 0.51999998
-2.5239999 10.892 -0.96700001 0.38
-2.836 12.077 -1.095 0.57999998
-2.878 12.088 -1.097 0.31
-2.8829999 11.941 -1.082 0.61000001
-2.9100001 11.89 -1.077 0.37
-2.7939999 11.255 -1.01 0.31999999
-2.964 11.864 -1.076 0.51999998
-2.8870001 11.399 -1.027 0.22
-2.885 11.242 -1.011 0.37
-2.7060001 10.402 -0.92199999 0.28999999
-3.0190001 11.466 -1.0369999 0.62
-2.9260001 10.972 -0.98500001 0.27000001
-3.0350001 11.241 -1.015 0.30000001
-3.1040001 11.427 -1.036 0.64999998
-2.622 9.5150003 -0.82999998 0.19
-3.2060001 11.514 -1.0470001 0.40000001
-3.1819999 11.29 -1.024 0.5
-3.2309999 11.329 -1.029 0.28999999
-3.279 11.359 -1.034 0.44999999
-3.3310001 11.408 -1.04 0.58999997
-3.3310001 11.342 -1.034 0.30000001
-3.4130001 11.488 -1.051 0.69
-3.467 11.538 -1.057 0.28
-3.474 11.428 -1.046 0.69
-3.51 11.419 -1.0470001 0.31999999
-3.55 11.421 -1.048 0.44
-3.608 11.48 -1.056 0.37
-3.6170001 11.446 -1.053 0.69999999
-3.6800001 11.52 -1.062 0.31999999
-3.7 11.459 -1.057 0.46000001
-3.776 11.568 -1.0700001 0.41999999
-3.8210001 11.583 -1.073 0.70999998
-3.9849999 11.956 -1.115 0.27000001
-4.0840001 12.128 -1.136 0.63999999
-4.1160002 12.16 -1.14 0.28999999
-3.947 11.536 -1.072 0.47999999
-4.1160002 11.912 -1.115 0.5
-4.2470002 12.169 -1.145 0.31999999
-4.2610002 12.086 -1.137 0.52999997
-2.6170001 7.3189998 -0.611 0.30000001
-2.6400001 7.3109999 -0.611 0.31999999
-4.4330001 12.268 -1.161 0.23999999
-4.0640001 11.13 -1.0369999 0.34
-4.4070001 11.96 -1.13 0.38999999
-4.1409998 11.123 -1.039 0.30000001
-4.1739998 11.104 -1.038 0.55000001
-4.527 11.936 -1.132 0.34
-4.7649999 12.45 -1.191 0.34999999
-4.7930002 12.463 -1.193 0.62
-4.8429999 12.476 -1.197 0.43000001
-4.7579999 12.141 -1.161 0.27000001
-4.6929998 11.865 -1.132 0.51999998
-4.7210002 11.828 -1.1289999 0.60000002
-4.8730001 12.098 -1.161 0.34
-4.7940001 11.795 -1.1289999 0.46000001
-4.7420001 11.614 -1.109 0.69
-4.8109999 11.678 -1.118 0.28999999
-4.803 11.555 -1.1059999 0.47
-4.835 11.528 -1.105 0.68000001
-4.9959998 11.81 -1.138 0.20999999
-4.8920002 11.461 -1.1 0.41
-4.908 11.4 -1.095 0.69999999
-4.947 11.442 -1.101 0.34999999
-4.9759998 11.41 -1.099 0.43000001
-4.9660001 11.29 -1.087 0.34999999
-5.0079999 11.289 -1.089 0.44999999
-5.052 11.291 -1.091 0.31999999
-5.1259999 11.363 -1.101 0.49000001
-5.0970001 11.203 -1.084 0.56999999
-3.3399999 7.289 -0.63700002 0.30000001
-5.2199998 11.333 -1.102 0.20999999
-3.3770001 7.25 -0.63499999 0.38
-5.2360001 11.181 -1.0880001 0.17
-5.2680001 11.157 -1.0880001 0.47
-5.2579999 11.047 -1.077 0.27000001
-5.2750001 10.993 -1.072 0.31999999
-5.2919998 10.983 -1.072 0.41999999
-5.323 10.961 -1.072 0.69999999
-5.342 10.912 -1.068 0.15000001
-5.3189998 10.779 -1.054 0.66000003
-5.3439999 10.744 -1.052 0.27000001
-5.368 10.708 -1.05 0.62
-3.727 7.3579998 -0.66100001 0.20999999
-3.767 7.4089999 -0.667 0.36000001
-3.796 7.408 -0.66900003 0.37
-5.4460001 10.57 -1.041 0.14
-5.493 10.579 -1.044 0.41
-5.4899998 10.493 -1.036 0.37
-5.4829998 10.4 -1.027 0.62
-5.5 10.353 -1.023 0.2
-5.559 10.425 -1.033 0.5
-5.6160002 10.453 -1.038 0.28999999
-5.6269999 10.394 -1.033 0.44
-5.6370001 10.336 -1.029 0.36000001
-6.1040001 11.112 -1.123 0.64999998
-6.1469998 11.025 -1.117 0.62
-5.8049998 10.37 -1.04 0.2
-5.8990002 10.461 -1.053 0.47999999
-5.9400001 10.458 -1.0549999 0.54000002
-4.6490002 8.1129999 -0.77600002 0.2
-4.2140002 7.296 -0.67900002 0.37
-5.9390001 10.23 -1.034 0.31999999
-4.237 7.23 -0.67400002 0.28
-6.0349998 10.282 -1.044 0.47999999
-6.0560002 10.244 -1.0420001 0.25999999
-5.2789998 8.8599997 -0.87599999 0.33000001
-5.3140001 8.8549995 -0.87800002 0.25999999
-5.4349999 8.993 -0.89700001 0.46000001
-5.4970002 9.0319996 -0.903 0.20999999
-5.527 9.0190001 -0.90399998 0.55000001
-5.5409999 9.0080004 -0.90399998 0.47
-5.467 8.8249998 -0.88300002 0.31
-5.5019999 8.8190002 -0.88499999 0.43000001
-5.5619998 8.8540001 -0.89099997 0.2
-5.572 8.8079996 -0.88800001 0.61000001
-5.6090002 8.8059998 -0.88999999 0.31
-5.678 8.8529997 -0.898 0.30000001
-5.0819998 7.8909998 -0.77899998 0.44
-5.9949999 9.1890001 -0.94499999 0.58999997
-6.066 9.2349997 -0.95300001 0.27000001
-4.8189998 7.277 -0.71100003 0.43000001
-4.8130002 7.2179999 -0.70499998 0.23999999
-5.4200001 8.0790005 -0.815 0.30000001
-6.1259999 9.1070004 -0.94499999 0.31999999
-5.5700002 8.2200003 -0.83600003 0.44999999
-5.5599999 8.1490002 -0.82999998 0.36000001
-6.402 9.3280001 -0.98100001 0.25
-6.4629998 9.3540001 -0.986 0.50999999
-5.5599999 7.9850001 -0.815 0.34
-5.9120002 8.4379997 -0.875 0.19
-6.0359998 8.5869999 -0.89499998 0.40000001
-6.0029998 8.4829998 -0.88499999 0.27000001
-6.2199998 8.7320004 -0.91900003 0.23
-5.7030001 7.9499998 -0.82099998 0.55000001
-5.5320001 7.6589999 -0.78600001 0.30000001
-5.7950001 7.9720001 -0.82800001 0.44
-6.8369999 9.3509998 -1.0089999 0.38999999
-6.401 8.724 -0.92900002 0.23
-6.4980001 8.7980003 -0.94099998 0.54000002
-6.7969999 9.1440001 -0.98900002 0.20999999
-6.6370001 8.8690004 -0.95599997 0.47999999
-6.7189999 8.9209995 -0.96600002 0.20999999
-6.6209998 8.7329998 -0.94400001 0.56999999
-6.217 8.1440001 -0.86900002 0.47999999
-6.5419998 8.5439997 -0.92299998 0.22
-6.3759999 8.2720003 -0.88999999 0.62
-7.217 9.3070002 -1.029 0.28
-7.2420001 9.2799997 -1.028 0.34
-7.296 9.2880001 -1.033 0.25999999
-7.395 9.3540001 -1.044 0.47999999
-7.3010001 9.1750002 -1.024 0.50999999
-6.875 8.6090002 -0.94999999 0.41999999
-7.3610001 9.1619997 -1.027 0.25999999
-6.2839999 7.7649999 -0.84200001 0.28999999
-7.585 9.3210001 -1.054 0.34
-7.6500001 9.3409996 -1.0599999 0.52999997
-8.3730001 10.162 -1.174 0.36000001
-9.3269997 11.253 -1.325 0.2
-14.041 16.905001 -2.0929999 0.50999999
-14.086 16.851999 -2.092 0.2
-7.9320002 9.4110003 -1.084 0.30000001
-6.756 7.9590001 -0.88999999 0.34999999
-8.1020002 9.4919996 -1.102 0.38
-6.7779999 7.8839998 -0.88499999 0.38
-9.2709999 10.73 -1.28 0.54000002
-6.8119998 7.849 -0.88499999 0.20999999
-8.7919998 10.076 -1.196 0.25999999
-6.8270001 7.7670002 -0.87900001 0.36000001
-7.2600002 8.21 -0.94400001 0.5
-8.868 9.9720001 -1.193 0.28999999
-7.388 8.1969995 -0.95200002 0.66000003
-6.921 7.652 -0.87699997 0.23999999
-6.9000001 7.5809999 -0.87 0.62
-7.3660002 7.994 -0.93400002 0.66000003
-13.511 14.601 -1.876 0.17
-7.4780002 8.0139999 -0.94400001 0.41999999
-7.1030002 7.5619998 -0.88300002 0.23
-7.2919998 7.7399998 -0.91000003 0.38
-7.1279998 7.5170002 -0.88099998 0.31
-7.289 7.6399999 -0.90200001 0.38
-7.276 7.5780001 -0.89600003 0.33000001
-7.368 7.6259999 -0.90700001 0.28
-7.3629999 7.573 -0.90200001 0.56
-7.5500002 7.7179999 -0.92699999 0.19
-9.1689997 9.3509998 -1.1670001 0.37
-9.1540003 9.2770004 -1.16 0.33000001
-10.867 10.951 -1.41 0.28999999
-9.1990004 9.2060003 -1.158 0.20999999
-9.177 9.1269999 -1.151 0.5
-11.034 10.912 -1.42 0.31999999
-8.3140001 8.1610003 -1.016 0.31999999
-7.7940001 7.625 -0.93800002 0.40000001
-7.8639998 7.645 -0.94499999 0.46000001
-7.4879999 7.2319999 -0.88599998 0.38999999
-14.077 13.542 -1.839 0.17
-13.736 13.13 -1.783 0.22
-7.8920002 7.4809999 -0.935 0.63999999
-8.9919996 8.4490004 -1.0880001 0.68000001
-8.9910002 8.3940001 -1.084 0.20999999
-8.9469995 8.3009996 -1.074 0.37
-9.1759996 8.4610004 -1.103 0.37
-8.993 8.2390003 -1.073 0.33000001
-8.9659996 8.1630001 -1.0650001 0.43000001
-9.2299995 8.3509998 -1.099 0.25
-9.2849998 8.3739996 -1.105 0.50999999
-9.3979998 8.4230003 -1.117 0.40000001
-9.0749998 8.0810003 -1.068 0.44
-9.3470001 8.2720003 -1.103 0.27000001
-9.3590002 8.2299995 -1.101 0.56999999
-9.2690001 8.099 -1.084 0.25999999
-9.3219995 8.0939999 -1.0880001 0.47999999
-9.4879999 8.2130003 -1.11 0.41
-9.7110004 8.3529997 -1.137 0.31
-9.4639997 8.0880003 -1.099 0.46000001
-9.7510004 8.2819996 -1.135 0.41
-9.5699997 8.0749998 -1.107 0.30000001
-8.5220003 7.1409998 -0.95999998 0.33000001
-8.573 7.1389999 -0.96399999 0.63999999
-9.6009998 7.973 -1.102 0.23999999
-8.599 7.092 -0.963 0.31
-9.9379997 8.1490002 -1.141 0.28999999
-10.159 8.2770004 -1.168 0.51999998
-10.121 8.1940002 -1.159 0.22
-10.139 8.1560001 -1.158 0.47999999
-10.336 8.2609997 -1.181 0.51999998
-9.8699999 7.862 -1.117 0.18000001
-10.821 8.5670004 -1.24 0.56
-10.783 8.4809999 -1.232 0.46000001
-11.028 8.6190004 -1.261 0.16
-10.638 8.2589998 -1.206 0.56999999
-10.794 8.3269997 -1.223 0.17
-9.7299995 7.454 -1.079 0.47999999
-9.7349997 7.434 -1.0779999 0.38999999
-9.6929998 7.3540001 -1.0700001 0.43000001
-9.7150002 7.322 -1.0700001 0.28999999
-11.175 8.3719997 -1.257 0.22
-11.196 8.3330002 -1.257 0.61000001
-11.247 8.316 -1.26 0.22
-11.079 8.1379995 -1.235 0.23999999
-11.042 8.0839996 -1.228 0.57999998
-11.413 8.3009996 -1.273 0.34
-11.315 8.1750002 -1.257 0.16
-11.166 8.0139999 -1.234 0.57999998
-11.46 8.1709995 -1.2690001 0.36000001
-11.279 7.9889998 -1.242 0.31999999
-11.555 8.1300001 -1.274 0.43000001
-14.887 10.449 -1.698 0.25999999
-11.115 7.7420001 -1.214 0.41999999
-15.06 10.43 -1.712 0.23
-11.666 8.0179996 -1.277 0.34999999
-10.764 7.3460002 -1.16 0.31999999
-11.59 7.8590002 -1.261 0.49000001
-11.582 7.8000002 -1.257 0.22
-11.541 7.7459998 -1.251 0.46000001
-15.035 10.033 -1.686 0.18000001
-12.012 7.954 -1.303 0.36000001
-11.658 7.6669998 -1.256 0.22
-17.624001 11.527 -1.998 0.28999999
-11.721 7.6030002 -1.258 0.41999999
-15.371 9.9119997 -1.709 0.23999999
-17.642 11.342 -1.989 0.19
-12.223 7.7940001 -1.313 0.44
-15.472 9.8059998 -1.712 0.25999999
-15.701 9.882 -1.7359999 0.33000001
-13.211 8.2519999 -1.426 0.23
-12.543 7.7789998 -1.34 0.27000001
-17.408001 10.732 -1.934 0.18000001
-17.427999 10.707 -1.9349999 0.61000001
-17.528999 10.693 -1.943 0.33000001
-17.610001 10.667 -1.949 0.40000001
-17.479 10.512 -1.929 0.40000001
-17.549 10.48 -1.933 0.28999999
-15.971 9.467 -1.738 0.40000001
-15.984 9.4060001 -1.7359999 0.25
-17.549 10.293 -1.923 0.38
-17.753 10.338 -1.944 0.25999999
-17.698999 10.233 -1.934 0.25
-17.614 10.109 -1.919 0.56999999
-16.146 9.1969995 -1.739 0.38
-16.08 9.0930004 -1.728 0.31
-16.261 9.1280003 -1.7460001 0.34
-16.284 9.1070004 -1.747 0.38999999
-16.337 9.0699997 -1.75 0.43000001
-16.604 9.1499996 -1.779 0.23999999
-15.541 8.4989996 -1.649 0.27000001
-15.54 8.4350004 -1.645 0.51999998
-16.514 8.8990002 -1.758 0.28999999
-16.67 8.915 -1.773 0.34
-16.559999 8.8219995 -1.758 0.34999999
-16.496 8.7220001 -1.747 0.36000001
-16.509001 8.6630001 -1.7460001 0.38999999
-17.039 8.8730001 -1.8049999 0.25
-17.134001 8.8540001 -1.813 0.46000001
-17.261999 8.8529997 -1.825 0.25999999
-16.982 8.6409998 -1.788 0.40000001
-16.945999 8.5889997 -1.783 0.30000001
-16.816 8.4569998 -1.7640001 0.23999999
-17.139999 8.5530005 -1.799 0.44999999
-17.424999 8.6269999 -1.829 0.27000001
-17.552 8.6219997 -1.841 0.25
-17.634001 8.5930004 -1.847 0.43000001
-17.702 8.5579996 -1.852 0.36000001
-16.996 8.1820002 -1.7690001 0.20999999
-17.007 8.1219997 -1.767 0.49000001
-17.212 8.1540003 -1.788 0.31999999
-17.461 8.2049999 -1.813 0.43000001
-17.323999 8.0740004 -1.795 0.38999999
-17.364 8.026 -1.796 0.34
-17.587999 8.0629997 -1.819 0.41
-16.431999 7.5 -1.6849999 0.20999999
-17.896999 8.1040001 -1.85 0.25999999
-17.851999 8.0159998 -1.842 0.55000001
-16.222 7.2199998 -1.653 0.18000001
-16.243 7.1680002 -1.653 0.34999999
-17.954 7.8590002 -1.845 0.28999999
-17.952999 7.8249998 -1.844 0.58999997
-18.002001 7.7789998 -1.847 0.23
-16.698999 7.152 -1.696 0.34999999
-17.955 7.625 -1.836 0.25999999
-17.931 7.5489998 -1.83 0.38
-18.237 7.6110001 -1.862 0.43000001
-15.283 6.3169999 -1.526 0.20999999
-20.858 8.5930004 -2.154 0.14
-18.77 7.6609998 -1.916 0.38999999
-15.611 6.3099999 -1.557 0.18000001
-17.955999 7.1960001 -1.819 0.2
-15.504 6.1529999 -1.541 0.37
-15.793 6.211 -1.571 0.14
-16.033001 6.2480001 -1.596 0.52999997
-17.253 6.6939998 -1.7309999 0.27000001
-15.727 6.0430002 -1.558 0.20999999
-15.681 5.9679999 -1.551 0.47999999
-18.506001 6.9819999 -1.864 0.23999999
-18.392 6.8730001 -1.849 0.22
-18.537001 6.8610001 -1.863 0.38999999
-18.712999 6.8600001 -1.88 0.27000001
-18.448999 6.697 -1.848 0.38999999
-18.433001 6.658 -1.845 0.38
-17.955999 6.4219999 -1.79 0.25999999
-17.863001 6.3249998 -1.778 0.22
-17.549 6.151 -1.7410001 0.31
-18.625999 6.4650002 -1.858 0.2
-18.684 6.4190001 -1.862 0.50999999
-17.898001 6.085 -1.773 0.23999999
-18.041 6.1030002 -1.788 0.38999999
-18.205999 6.0949998 -1.804 0.30000001
-18.697001 6.1950002 -1.8559999 0.20999999
-18.65 6.1139998 -1.848 0.51999998
-18.811001 6.1020002 -1.864 0.30000001
-19.121 6.1370001 -1.896 0.22
-18.673 5.9590001 -1.846 0.38999999
-19.033001 6.0089998 -1.883 0.34999999
-19.143 5.9780002 -1.893 0.46000001
-19.159 5.9169998 -1.893 0.34999999
-19.138 5.8449998 -1.888 0.28999999
-19.124001 5.7750001 -1.885 0.31999999
-19.163 5.7210002 -1.887 0.34999999
-18.830999 5.5890002 -1.85 0.2
-18.525999 5.4349999 -1.8150001 0.5
-18.888 5.4770002 -1.852 0.30000001
-18.965 5.4349999 -1.859 0.34999999
-19.031 5.3889999 -1.864 0.41
-19.177999 5.3660002 -1.878 0.38
-19.434999 5.3720002 -1.904 0.34
-19.583 5.381 -1.919 0.41999999
-19.819 5.3790002 -1.943 0.34
-20.003 5.3610001 -1.961 0.40000001
-20.174999 5.3400002 -1.978 0.36000001
-20.261 5.2950001 -1.9859999 0.33000001
-20.403 5.2639999 -1.999 0.5
-20.514999 5.224 -2.0090001 0.25
-20.531 5.1939998 -2.01 0.44999999
-20.407 5.0939999 -1.995 0.16
-20.413 4.96 -1.992 0.64999998
-20.436001 4.8969998 -1.993 0.81
-20.479 4.8390002 -1.9960001 0.60000002
-20.496 4.776 -1.9960001 0.12
-20.462999 4.7340002 -1.992 0
-20.473 4.6690001 -1.992 0
-20.482 4.6030002 -1.9910001 0
-20.497 4.539 -1.9910001 0
-20.499001 4.4720001 -1.99 0
-20.503 4.4050002 -1.989 0.079999998
-20.507 4.3390002 -1.988 0.090000004
-20.507999 4.3049998 -1.987 0.090000004
-20.514 4.2389998 -1.9859999 0.090000004
-20.517 4.1729999 -1.985 0.079999998
-20.525 4.1069999 -1.984 0.090000004
-20.541 4.0430002 -1.985 0.090000004
-20.558001 3.9790001 -1.985 0.15000001
-20.556 3.9119999 -1.984 0.22
-20.555 3.878 -1.983 0.23999999
-20.566999 3.8139999 -1.983 0.23999999
-20.552999 3.7449999 -1.98 0.11
-20.555 3.678 -1.979 0.15000001
-20.570999 3.6140001 -1.98 0.28
-20.568001 3.5469999 -1.978 0.19
-20.561001 3.48 -1.976 0.18000001
-20.566999 3.447 -1.976 0.20999999
-20.566 3.381 -1.975 0.18000001
-20.573999 3.316 -1.975 0.30000001
-20.584999 3.2509999 -1.975 0.11
-20.569 3.1830001 -1.972 0
-20.566999 3.1159999 -1.971 0
-20.583 3.052 -1.972 0
-20.576 3.0179999 -1.97 0
-20.608999 2.957 -1.973 0
-20.618 2.892 -1.973 0
-20.576 2.8199999 -1.967 0
-20.622 2.7609999 -1.971 0
-20.618999 2.694 -1.97 0
-20.615 2.628 -1.969 0
-20.617001 2.595 -1.969 0
-20.628 2.5309999 -1.969 0
-20.627001 2.4649999 -1.9680001 0
-20.591999 2.395 -1.9630001 0
-20.589001 2.329 -1.962 0
-20.594 2.2650001 -1.962 0.13
-20.599001 2.2 -1.962 0.20999999
-20.605 2.1670001 -1.962 0.12
-20.620001 2.0380001 -1.962 0.69999999
-20.611 1.972 -1.961 0.81999999
-20.768999 1.921 -1.977 0.57999998
-20.605 1.841 -1.959 0.11
-20.613001 1.809 -1.96 0.15000001
-20.621 1.744 -1.96 0.090000004
-20.624001 1.679 -1.96 0.090000004
-20.663 1.617 -1.9630001 0
-20.641001 1.55 -1.96 0
-20.625 1.484 -1.9579999 0
-20.646 1.42 -1.96 0
-20.638 1.387 -1.959 0
-20.646 1.322 -1.959 0
-19.174999 1.166 -1.8049999 0.050000001
-19.174999 1.105 -1.804 0
-19.107 1.041 -1.7970001 0
-18.893 0.97000003 -1.774 0
-18.749001 0.903 -1.7589999 0
-18.707001 0.87099999 -1.7539999 0
-18.827 0.81800002 -1.767 0
-18.771999 0.75599998 -1.761 0
-18.702999 0.69499999 -1.753 0
-18.684999 0.63499999 -1.751 0
-18.650999 0.57499999 -1.747 0
-18.629 0.51599997 -1.745 0
-18.628 0.48699999 -1.745 0
-18.613001 0.428 -1.743 0
-18.601999 0.36899999 -1.742 0
-18.605 0.31099999 -1.742 0
-18.606001 0.252 -1.742 0
-18.613001 0.19400001 -1.743 0
-18.618999 0.13500001 -1.743 0
-18.629999 0.077 -1.744 0
-18.652 0.048 -1.747 0
-18.681999 -0.011 -1.75 0
-18.721001 -0.07 -1.7539999 0
-18.749001 -0.12899999 -1.757 0
-18.818001 -0.18799999 -1.7640001 0
-18.99 -0.249 -1.7819999 0
-18.871 -0.27700001 -1.77 0
-18.754 -0.33500001 -1.758 0
-18.92 -0.39700001 -1.775 0
-19.138 -0.461 -1.798 0.13
-19.218 -0.52399999 -1.806 0
-19.218 -0.58399999 -1.807 0
-20.712999 -0.69300002 -1.9630001 0.12
-20.773001 -0.79299998 -1.97 0.15000001
-20.739 -0.85699999 -1.966 0.63999999
-20.756001 -0.92299998 -1.9680001 0.79000002
-20.568001 -0.97899997 -1.949 0.37
-20.702 -1.051 -1.9630001 0.13
-20.903 -1.126 -1.985 0.25
-20.695 -1.148 -1.9630001 0.34
-20.452999 -1.199 -1.938 0.31
-20.365 -1.2589999 -1.929 0.34
-20.207001 -1.313 -1.913 0.37
-20.052999 -1.3660001 -1.898 0.36000001
-19.924 -1.42 -1.885 0.36000001
-19.875999 -1.48 -1.88 0.34999999
-19.844999 -1.54 -1.877 0.41
-19.826 -1.602 -1.876 0.36000001
-20.211 -1.664 -1.916 0.31999999
-20.226999 -1.729 -1.919 0.34999999
-20.346001 -1.804 -1.932 0.31999999
-20.455 -1.878 -1.944 0.40000001
-20.511 -1.948 -1.95 0.36000001
-21.354 -2.095 -2.039 0.27000001
-21.539 -2.181 -2.059 0.40000001
-21.587 -2.22 -2.0650001 0.36000001
-21.683001 -2.299 -2.076 0.36000001
-21.719 -2.372 -2.0799999 0.34
-21.778999 -2.447 -2.0869999 0.31
-22.250999 -2.5710001 -2.138 0.2
-22.334 -2.651 -2.1470001 0.5
-22.184999 -2.704 -2.132 0.31999999
-21.915001 -2.707 -2.1040001 0.41999999
-21.813 -2.7639999 -2.095 0.33000001
-21.813999 -2.8340001 -2.096 0.17
-21.754 -2.895 -2.0899999 0.38
-21.778 -2.9679999 -2.0940001 0.28
-21.700001 -3.027 -2.0869999 0.37
-21.934999 -3.1300001 -2.112 0.37
-21.761999 -3.1400001 -2.095 0.30000001
-22.207001 -3.2750001 -2.1429999 0.25
-22.281 -3.358 -2.152 0.33000001
-22.379 -3.444 -2.1630001 0.30000001
-22.528999 -3.539 -2.1800001 0.34
-22.41 -3.5929999 -2.1689999 0.30000001
-22.502001 -3.6800001 -2.1800001 0.31999999
-22.502001 -3.717 -2.1800001 0.31999999
-22.447001 -3.78 -2.1760001 0.37
-22.337 -3.8340001 -2.165 0.41
-22.240999 -3.8889999 -2.1559999 0.28
-22.094999 -3.9360001 -2.142 0.40000001
-22.080999 -4.0050001 -2.142 0.30000001
-22.011999 -4.0640001 -2.1359999 0.31999999
-22.278999 -4.1490002 -2.165 0.41999999
-22.385 -4.2410002 -2.178 0.27000001
-22.174 -4.2740002 -2.1570001 0.23
-22.370001 -4.3839998 -2.1789999 0.28999999
-22.295 -4.4419999 -2.1730001 0.41
-22.392 -4.5349998 -2.184 0.38
-22.92 -4.7160001 -2.2420001 0.28999999
-22.754999 -4.7189999 -2.2249999 0.25999999
-22.584 -4.7579999 -2.2090001 0.40000001
-22.693001 -4.8559999 -2.2219999 0.28
-22.624001 -4.915 -2.2160001 0.34999999
-22.591 -4.9819999 -2.214 0.41
-21.297001 -4.7690001 -2.0780001 0.15000001
-21.268 -4.8330002 -2.076 0.56
-21.344 -4.8850002 -2.085 0.30000001
-21.313 -4.9489999 -2.0829999 0.36000001
-21.212 -4.9949999 -2.0739999 0.30000001
-22.054001 -5.2659998 -2.1659999 0.27000001
-22.018 -5.3299999 -2.164 0.18000001
-21.236 -5.2129998 -2.082 0.28
-21.277 -5.2940001 -2.0880001 0.38
-21.533001 -5.3930001 -2.1170001 0.31
-21.528 -5.4640002 -2.118 0.34
-21.677999 -5.5739999 -2.1359999 0.34999999
-21.271999 -5.5409999 -2.0940001 0.34999999
-20.929001 -5.5229998 -2.059 0.25
-21.212999 -5.6690001 -2.092 0.34
-21.049 -5.6599998 -2.075 0.44
-21.143999 -5.757 -2.0869999 0.16
-14.356 -3.9660001 -1.354 0.43000001
-14.281 -3.994 -1.348 0.41
-14.235 -4.0289998 -1.344 0.55000001
-21.261999 -6.0770001 -2.108 0.27000001
-21.158001 -6.119 -2.099 0.20999999
-14.801 -4.3140001 -1.409 0.56
-21.127001 -6.2179999 -2.098 0.22
-25.733 -7.6560001 -2.602 0.37
-28.582001 -8.5979996 -2.915 0.23999999
-28.417 -8.6470003 -2.9000001 0.13
-20.566 -6.336 -2.046 0.2
-14.56 -4.5430002 -1.392 0.36000001
-14.731 -4.6479998 -1.4119999 0.57999998
-28.466999 -9.0050001 -2.9159999 0.12
-14.4 -4.618 -1.378 0.31999999
-14.399 -4.6680002 -1.38 0.44
-28.257999 -9.2320004 -2.9030001 0.20999999
-28.268 -9.3339996 -2.9070001 0.31
-28.273001 -9.434 -2.911 0.23
-28.194 -9.507 -2.905 0.38
-28.149 -9.5410004 -2.902 0.27000001
-28.239 -9.6700001 -2.915 0.34999999
-28.163 -9.743 -2.9100001 0.31
-21.923 -7.6680002 -2.224 0.25
-21.808001 -7.7049999 -2.214 0.28999999
-21.895 -7.8119998 -2.2260001 0.28999999
-22.075001 -7.9159999 -2.2479999 0.28999999
-28.051001 -10.151 -2.9130001 0.30000001
-28.075001 -10.259 -2.9200001 0.2
-28.089001 -10.364 -2.925 0.38999999
-28.094 -10.466 -2.9289999 0.18000001
-28.118999 -10.576 -2.9349999 0.27000001
-28.028 -10.643 -2.9289999 0.25
-22.547001 -8.6079998 -2.319 0.49000001
-22.546 -8.6879997 -2.322 0.14
-22.346001 -8.6920004 -2.302 0.44
-22.218 -8.7229996 -2.2909999 0.34
-22.246 -8.8149996 -2.2969999 0.44
-22.061001 -8.8219995 -2.28 0.38
-27.987 -11.286 -2.9489999 0.28999999
-27.992001 -11.339 -2.9519999 0.28
-28.02 -11.453 -2.9590001 0.20999999
-22.099001 -9.1199999 -2.2950001 0.41
-28.066999 -11.679 -2.973 0.28999999
-28.01 -11.758 -2.97 0.22
-27.969 -11.845 -2.97 0.33000001
-27.91 -11.923 -2.9679999 0.31999999
-28.054001 -12.037 -2.9860001 0.28
-28.138 -12.178 -3 0.33000001
-28.496 -12.438 -3.0450001 0.34
-28.490999 -12.543 -3.049 0.28999999
-28.461 -12.636 -3.05 0.20999999
-28.381001 -12.708 -3.0450001 0.23999999
-21.204 -9.5819998 -2.2279999 0.28999999
-21.184 -9.6129999 -2.2279999 0.31999999
-21.129999 -9.6680002 -2.2249999 0.55000001
-21.125 -9.7460003 -2.2279999 0.28
-28.274 -13.143 -3.0539999 0.43000001
-28.375 -13.298 -3.0699999 0.23
-28.371 -13.405 -3.075 0.28
-28.41 -13.533 -3.0840001 0.27000001
-28.478001 -13.62 -3.095 0.37
-28.299 -13.644 -3.079 0.25
-28.422001 -13.814 -3.098 0.30000001
-28.377001 -13.902 -3.098 0.33000001
-28.356001 -14.003 -3.1010001 0.34
-28.305 -14.088 -3.0999999 0.31999999
-28.167999 -14.131 -3.089 0.25999999
-28.271 -14.237 -3.1029999 0.30000001
-15.85 -8.0579996 -1.656 0.17
-19.875 -10.175 -2.1300001 0.23999999
-19.813 -10.222 -2.1270001 0.43000001
-17.077 -8.882 -1.809 0.52999997
-17.065001 -8.9440002 -1.811 0.38
-28.360001 -14.959 -3.1459999 0.25
-28.385 -15.029 -3.152 0.31
-28.41 -15.157 -3.161 0.28
-28.396999 -15.264 -3.165 0.28
-28.391001 -15.376 -3.1700001 0.33000001
-28.362 -15.476 -3.1719999 0.23999999
-16.736 -9.2810001 -1.7970001 0.58999997
-16.646999 -9.2659998 -1.788 0.25
-28.313 -15.856 -3.187 0.31999999
-28.243 -15.933 -3.184 0.30000001
-21.643999 -12.307 -2.398 0.16
-21.572001 -12.356 -2.3940001 0.31
-21.516001 -12.414 -2.392 0.36000001
-21.499001 -12.494 -2.395 0.41
-21.509001 -12.545 -2.3989999 0.22
-22.604 -13.277 -2.536 0.56999999
-28.148001 -16.646 -3.2130001 0.31999999
-28.061001 -16.714001 -3.2090001 0.25999999
-28.082001 -16.846001 -3.2179999 0.31
-28.014999 -16.926001 -3.2160001 0.25999999
-28.004 -17.040001 -3.221 0.16
-27.886 -17.028 -3.21 0.51999998
-27.948 -17.186001 -3.224 0.18000001
-16.804001 -10.418 -1.863 0.36000001
-27.816999 -17.347 -3.221 0.25
-27.781 -17.445999 -3.224 0.30000001
-27.412001 -17.334999 -3.1849999 0.13
-27.059999 -17.232 -3.148 0.43000001
-16.224001 -10.38 -1.8099999 0.22
-15.728 -10.203 -1.757 0.38999999
-16.066999 -10.494 -1.803 0.2
-16.066 -10.566 -1.807 0.23
-23.257 -15.386 -2.71 0.23999999
-23.177 -15.438 -2.7060001 0.28999999
-23.111 -15.447 -2.701 0.25
-23.063999 -15.52 -2.701 0.51999998
-23.032 -15.604 -2.7030001 0.30000001
-9.6379995 -6.6360002 -1.021 0.57999998
-27.205 -18.801001 -3.2509999 0.20999999
-27.334 -18.954 -3.2709999 0.2
-27.396999 -19.125 -3.2869999 0.27000001
-15.029 -10.576 -1.7180001 0.14
-9.2980003 -6.6430001 -0.99199998 0.57999998
-27.035999 -19.382999 -3.2720001 0.14
-9.1780005 -6.6669998 -0.98400003 0.70999998
-9.1700001 -6.7049999 -0.98500001 0.34
-18.725 -13.749 -2.224 0.34
-10.162 -7.5250001 -1.12 0.38999999
